# This PCD file was generated using the MATLAB® pcwrite function
# from Computer Vision Toolbox®.
# .PCD v.7 - Point Cloud Data file format
VERSION .7
FIELDS x y z
SIZE 8 8 8
TYPE F F F
COUNT 1 1 1
WIDTH 128
HEIGHT 1
VIEWPOINT 0 0 0 1 0 0 0
POINTS 128
DATA ascii
27.878000000000000 -99.241000000000000 31.681000000000001
-1.651000000000000 -105.066000000000003 26.285000000000000
-29.245999999999999 -101.977000000000004 25.405999999999999
13.507999999999999 -104.263000000000005 45.802000000000000
-22.789000000000001 -106.272999999999996 41.372000000000000
48.774999999999999 -78.703000000000003 35.816000000000003
28.477000000000000 -95.242000000000004 64.561999999999998
-6.431000000000000 -106.088999999999999 59.082999999999998
-44.603000000000002 -94.686000000000007 53.622000000000000
-55.149000000000001 -80.659999999999997 21.486000000000001
42.241999999999997 -80.359999999999999 64.356999999999999
5.729000000000000 -99.188999999999993 80.272000000000006
-27.661999999999999 -99.250000000000000 77.674000000000007
-58.390999999999998 -82.236999999999995 49.475000000000001
60.048000000000002 -55.158999999999999 41.173999999999999
51.286999999999999 -69.278999999999996 65.988000000000000
33.348999999999997 -79.933000000000007 84.969999999999999
14.215000000000000 -88.078999999999994 95.019000000000005
-12.631000000000000 -95.825999999999993 93.153000000000006
-40.801000000000002 -89.162999999999997 88.085999999999999
-57.670999999999999 -80.319999999999993 71.858999999999995
-66.254999999999995 -70.576999999999998 46.445000000000000
-65.710999999999999 -55.847999999999999 20.600999999999999
61.384999999999998 -50.856000000000002 56.701999999999998
47.287999999999997 -63.786000000000001 83.879000000000005
26.995999999999999 -74.322999999999993 101.724000000000004
0.164000000000000 -82.734999999999999 107.512000000000000
-31.989999999999998 -83.021000000000001 104.861000000000004
-56.972000000000001 -73.843999999999994 89.075000000000003
-70.933999999999997 -63.598999999999997 63.904000000000003
-72.885999999999996 -52.177999999999997 37.472999999999999
70.927000000000007 -24.896999999999998 13.093000000000000
68.570999999999998 -29.946999999999999 48.517000000000003
59.167000000000002 -46.895000000000003 79.165000000000006
39.752000000000002 -57.500999999999998 104.784999999999997
9.260999999999999 -67.501000000000005 117.872000000000000
-18.707999999999998 -71.477999999999994 118.659999999999997
-47.781999999999996 -66.061999999999998 108.141000000000005
-70.569000000000003 -57.951000000000001 86.510999999999996
-79.885999999999996 -45.732999999999997 53.832000000000001
-75.284000000000006 -27.847000000000001 24.434999999999999
-66.902000000000001 -23.550000000000001 -11.173000000000000
71.200000000000003 -13.619000000000000 37.488999999999997
65.412999999999997 -24.789999999999999 68.135000000000005
53.689000000000000 -38.994000000000000 99.629999999999995
26.571999999999999 -49.387000000000000 122.471000000000004
-5.044000000000000 -57.219999999999999 130.061000000000007
-36.161999999999999 -56.607999999999997 124.649000000000001
-64.796000000000006 -47.930999999999997 105.959000000000003
-83.492999999999995 -37.576000000000001 74.257999999999996
-83.876000000000005 -22.617000000000001 42.944000000000003
-74.811000000000007 -15.114000000000001 9.366000000000000
71.822999999999993 -3.598000000000000 56.594999999999999
62.173000000000002 -18.238000000000000 91.263000000000005
41.874000000000002 -29.451000000000001 120.311999999999998
8.797000000000001 -37.073999999999998 137.467000000000013
-22.245000000000001 -41.777999999999999 138.044000000000011
-54.137000000000000 -37.430000000000000 124.281999999999996
-78.622000000000000 -27.702000000000002 98.591999999999999
-87.253000000000000 -16.931000000000001 63.427999999999997
-80.596999999999994 -2.416000000000000 29.431000000000001
66.284999999999997 31.634000000000000 18.085000000000001
67.659999999999997 3.651000000000000 78.899000000000001
54.404000000000003 -7.395000000000000 113.376000000000005
26.931000000000001 -19.751000000000001 134.710000000000008
-7.721000000000000 -24.097999999999999 146.727000000000004
-40.423999999999999 -22.879000000000001 139.888000000000005
-68.644999999999996 -19.090000000000000 118.549000000000007
-85.331999999999994 -10.702999999999999 86.125000000000000
-86.043999999999997 4.966000000000000 50.189000000000000
-64.930999999999997 34.820999999999998 -7.571000000000000
66.876999999999995 22.808000000000000 68.747000000000000
60.119999999999997 12.439000000000000 98.698999999999998
37.965000000000003 1.453000000000000 129.753999999999991
6.900000000000000 -4.238000000000000 145.835000000000008
-24.282000000000000 -6.167000000000000 145.477000000000004
-55.872000000000000 -5.365000000000000 134.276999999999987
-76.853999999999999 -0.682000000000000 107.465000000000003
-84.998999999999995 10.644000000000000 71.478999999999999
-80.834000000000003 21.789999999999999 36.317999999999998
60.716000000000001 38.780000000000001 54.152000000000001
55.244000000000000 31.670000000000002 87.978999999999999
44.652000000000001 21.039999999999999 116.269000000000005
22.021999999999998 13.766000000000000 137.550000000000011
-7.416000000000000 14.369999999999999 143.451999999999998
-41.119999999999997 13.007000000000000 138.895999999999987
-65.998000000000005 13.167999999999999 120.430999999999997
-78.037999999999997 19.411000000000001 89.570999999999998
-78.403000000000006 30.433000000000000 58.308000000000000
-71.287999999999997 41.774999999999999 28.847000000000001
53.261000000000003 51.548999999999999 47.082999999999998
52.320000000000000 44.572000000000003 77.248000000000005
43.082000000000001 36.558999999999997 100.950999999999993
27.698000000000000 30.309999999999999 125.150000000000006
4.151000000000000 29.018999999999998 135.938999999999993
-23.765000000000001 28.625000000000000 133.926999999999992
-51.456000000000003 26.856000000000002 127.004999999999995
-68.016999999999996 29.430000000000000 107.828000000000003
-72.412999999999997 37.082999999999998 77.498000000000005
-72.445999999999998 46.923000000000002 50.128000000000000
-61.213000000000001 58.917999999999999 24.622000000000000
45.408000000000001 53.972000000000001 67.852000000000004
27.972000000000001 44.752000000000002 112.168999999999997
-7.197000000000000 41.582999999999998 127.554000000000002
-38.963999999999999 40.052000000000000 123.183000000000007
-61.168999999999997 44.826000000000001 91.203000000000003
-61.746000000000002 59.082000000000001 44.765000000000001
36.256000000000000 64.055000000000007 63.405999999999999
33.149000000000001 59.822000000000003 82.516000000000005
28.646999999999998 54.543999999999997 95.248000000000005
15.579000000000001 51.435000000000002 113.248999999999995
-19.869000000000000 55.718000000000004 113.114000000000004
-52.457999999999998 52.136000000000003 100.388000000000005
-58.715000000000003 55.335999999999999 79.697000000000003
-57.484999999999999 61.290999999999997 64.129999999999995
-51.253000000000000 69.421999999999997 43.216000000000001
18.815999999999999 74.561000000000007 65.650999999999996
-0.598000000000000 68.713999999999999 100.192999999999998
-32.488000000000000 68.164000000000001 93.263999999999996
-40.365000000000002 75.245999999999995 55.445999999999998
13.358000000000001 73.025999999999996 85.340999999999994
-14.218000000000000 75.519999999999996 81.844999999999999
-40.978999999999999 73.146000000000001 75.512000000000000
5.812000000000000 79.251000000000005 67.037000000000006
-26.306999999999999 80.293999999999997 60.164999999999999
28.559999999999999 75.596999999999994 48.843000000000004
-5.813000000000000 80.123999999999995 48.345999999999997
-29.925000000000001 80.792000000000002 42.637999999999998