# This PCD file was generated using the MATLAB® pcwrite function
# from Computer Vision Toolbox®.
# .PCD v.7 - Point Cloud Data file format
VERSION .7
FIELDS x y z
SIZE 8 8 8
TYPE F F F
COUNT 1 1 1
WIDTH 128
HEIGHT 1
VIEWPOINT 0 0 0 1 0 0 0
POINTS 128
DATA ascii
25.533000000000001 -87.283000000000001 40.039000000000001
-3.965000000000000 -90.893000000000001 38.164000000000001
-31.344999999999999 -88.643000000000001 33.384999999999998
8.901000000000000 -89.102000000000004 55.911000000000001
-18.949000000000002 -89.703999999999994 51.064999999999998
49.945999999999998 -67.850999999999999 42.793999999999997
31.071000000000002 -75.698999999999998 72.596999999999994
-5.809000000000000 -85.046999999999997 72.257000000000005
-41.582000000000001 -72.691000000000003 68.537999999999997
-57.344000000000001 -61.908999999999999 39.164000000000001
44.256000000000000 -66.037999999999997 73.049000000000007
7.310000000000000 -74.302000000000007 89.594999999999999
-20.831000000000000 -72.201999999999998 86.233000000000004
-54.957999999999998 -58.412999999999997 67.143000000000001
63.825000000000003 -45.478000000000002 49.677000000000000
53.560000000000002 -53.475999999999999 73.643000000000001
37.674999999999997 -56.728000000000002 92.225999999999999
16.486999999999998 -61.375999999999998 100.453000000000003
-6.871000000000000 -64.412999999999997 100.591999999999999
-28.036999999999999 -58.834000000000003 96.491000000000000
-48.295000000000002 -51.244999999999997 85.968000000000004
-60.862000000000002 -47.113999999999997 65.831999999999994
-66.260999999999996 -37.588000000000001 43.981000000000002
64.251999999999995 -37.631999999999998 66.500000000000000
52.287999999999997 -44.027000000000001 87.998999999999995
35.316000000000003 -44.100999999999999 105.201999999999998
5.068000000000000 -52.685000000000002 110.402000000000001
-19.250000000000000 -48.838000000000001 108.741000000000000
-45.552000000000000 -37.204999999999998 100.370000000000005
-60.481000000000002 -35.994000000000000 80.981999999999999
-67.956000000000003 -30.106000000000002 60.970999999999997
68.509000000000000 -18.120000000000001 30.832999999999998
69.733999999999995 -21.439000000000000 60.369000000000000
61.545000000000002 -28.268000000000001 83.751999999999995
42.819000000000003 -30.494000000000000 106.560000000000002
17.355000000000000 -34.728999999999999 116.748999999999995
-10.717000000000001 -35.518000000000001 117.756000000000000
-33.536999999999999 -28.849000000000000 113.311000000000007
-54.037999999999997 -22.155000000000001 100.337999999999994
-69.997000000000000 -17.326000000000001 73.709999999999994
-74.150999999999996 -11.413000000000000 49.765000000000001
-72.900000000000006 -9.217000000000001 27.155999999999999
71.150000000000006 -6.915000000000000 44.585000000000001
68.251000000000005 -12.297000000000001 74.417000000000002
57.280000000000001 -16.533999999999999 98.305999999999997
37.567999999999998 -17.992999999999999 118.122000000000000
8.539999999999999 -23.219000000000001 127.319999999999993
-22.882999999999999 -17.114000000000001 124.686999999999998
-48.475999999999999 -8.605000000000000 112.269000000000005
-67.280000000000001 -4.459000000000000 88.593999999999994
-74.569999999999993 -2.681000000000000 62.686000000000000
-77.861000000000004 2.391000000000000 37.289000000000001
73.210999999999999 4.156000000000000 61.219999999999999
65.549999999999997 0.704000000000000 92.263000000000005
48.137000000000000 -1.473000000000000 114.385999999999996
22.646000000000001 -3.736000000000000 128.435000000000002
-6.468000000000000 -2.562000000000000 129.795999999999992
-33.322000000000003 0.959000000000000 123.641999999999996
-56.930000000000000 5.670000000000000 107.870000000000005
-72.879999999999995 11.161000000000000 81.305999999999997
-77.442999999999998 12.003000000000000 50.813000000000002
64.435000000000002 39.180000000000000 16.655000000000001
70.766999999999996 16.484999999999999 76.480999999999995
59.966000000000001 16.379999999999999 102.209999999999994
36.146000000000001 15.634000000000000 122.221999999999994
5.330000000000000 17.645000000000000 130.647999999999996
-24.001999999999999 17.189000000000000 127.417000000000002
-51.899999999999999 21.266999999999999 111.855000000000004
-67.543999999999997 24.053999999999998 91.891000000000005
-73.570999999999998 27.004000000000001 62.311999999999998
-65.742000000000004 46.064999999999998 5.658000000000000
66.805999999999997 30.882000000000001 59.375000000000000
62.057000000000002 31.771999999999998 89.420000000000002
43.859999999999999 32.180000000000000 113.632999999999996
18.504999999999999 35.326000000000001 125.635999999999996
-6.598000000000000 33.945999999999998 128.009999999999991
-35.720999999999997 35.116000000000000 119.844999999999999
-57.435000000000002 37.018999999999998 102.995000000000005
-68.066999999999993 39.353000000000002 77.204999999999998
-71.066000000000003 39.649999999999999 49.654000000000003
62.668999999999997 42.469000000000001 43.424999999999997
60.552000000000000 46.356000000000002 67.018000000000001
52.942000000000000 47.561999999999998 92.727999999999994
38.210000000000001 44.375000000000000 110.436000000000007
10.910000000000000 50.844999999999999 120.239000000000004
-17.844000000000001 53.127000000000002 119.180000000000007
-46.685000000000002 51.497000000000000 105.522999999999996
-58.393999999999998 53.783999999999999 86.051000000000002
-64.239000000000004 52.643000000000001 61.578000000000003
-68.111999999999995 48.527999999999999 35.226999999999997
57.561000000000000 55.497000000000000 28.739000000000001
57.780000000000001 55.061999999999998 52.863000000000000
54.968000000000004 58.008000000000003 75.543000000000006
43.648000000000003 59.125000000000000 96.733000000000004
23.123000000000001 61.655999999999999 109.890000000000001
-4.881000000000000 63.365000000000002 112.781000000000006
-28.963000000000001 65.052999999999997 107.260000000000005
-43.113000000000000 66.399000000000001 93.843000000000004
-54.984999999999999 65.358999999999995 69.972999999999999
-59.704999999999998 64.177999999999997 45.331000000000003
-58.491000000000000 63.853999999999999 23.199999999999999
53.475999999999999 66.689999999999998 42.695000000000000
45.503999999999998 65.998999999999995 80.548000000000002
13.005000000000001 71.881000000000000 99.320999999999998
-18.486999999999998 73.462999999999994 97.799000000000007
-45.194000000000003 74.453000000000003 73.537000000000006
-53.006000000000000 73.162000000000006 35.237000000000002
44.851999999999997 73.981999999999999 29.437999999999999
43.680000000000000 75.319000000000003 47.469999999999999
42.381999999999998 73.709999999999994 64.085999999999999
32.328000000000003 76.855999999999995 77.680999999999997
0.348000000000000 84.808000000000007 82.938000000000002
-32.625000000000000 82.555999999999997 72.762000000000000
-42.939999999999998 80.786000000000001 57.853000000000002
-42.164999999999999 84.500000000000000 39.899999999999999
-42.356000000000002 82.093999999999994 19.928000000000001
30.876999999999999 85.822999999999993 26.983000000000001
16.606000000000002 89.329999999999998 61.118000000000002
-15.741000000000000 92.329999999999998 58.066000000000003
-26.800000000000001 88.805000000000007 17.939000000000000
27.370000000000001 87.260000000000005 45.820999999999998
0.173000000000000 95.516999999999996 45.170000000000002
-24.521000000000001 92.367999999999995 40.667999999999999
14.912000000000001 92.572999999999993 27.704000000000001
-8.551000000000000 95.215000000000003 25.863000000000000
33.048999999999999 80.581000000000003 11.442000000000000
2.780000000000000 91.186999999999998 14.771000000000001
-28.006000000000000 84.441000000000003 8.409000000000001